1183.0000000000 802.0000000000 694.0000000000
1120.0000000000 755.0000000000 706.0000000000
1181.0000000000 756.0000000000 674.0000000000
1128.0000000000 815.0000000000 700.0000000000
1185.0000000000 798.0000000000 668.0000000000
1147.0000000000 744.0000000000 658.0000000000
1175.0000000000 742.0000000000 707.0000000000
1177.0000000000 760.0000000000 717.0000000000
1180.0000000000 807.0000000000 694.0000000000
1147.0000000000 804.0000000000 658.0000000000
1136.0000000000 746.0000000000 660.0000000000
1134.0000000000 803.0000000000 666.0000000000
1139.0000000000 738.0000000000 674.0000000000
1144.0000000000 753.0000000000 722.0000000000
1146.0000000000 742.0000000000 660.0000000000
1132.0000000000 801.0000000000 718.0000000000
1125.0000000000 738.0000000000 699.0000000000
1142.0000000000 743.0000000000 660.0000000000
1135.0000000000 746.0000000000 660.0000000000
1125.0000000000 792.0000000000 660.0000000000
1173.0000000000 741.0000000000 698.0000000000
1181.0000000000 808.0000000000 697.0000000000
1183.0000000000 798.0000000000 716.0000000000
1164.0000000000 744.0000000000 660.0000000000
1128.0000000000 798.0000000000 715.0000000000
1126.0000000000 787.0000000000 721.0000000000
1178.0000000000 761.0000000000 658.0000000000
1119.0000000000 752.0000000000 697.0000000000
1126.0000000000 786.0000000000 720.0000000000
1179.0000000000 746.0000000000 697.0000000000
1128.0000000000 787.0000000000 657.0000000000
1134.0000000000 749.0000000000 712.0000000000
1118.0000000000 774.0000000000 717.0000000000
1132.0000000000 809.0000000000 674.0000000000
1129.0000000000 746.0000000000 714.0000000000
1183.0000000000 750.0000000000 668.0000000000
1124.0000000000 752.0000000000 721.0000000000
1184.0000000000 750.0000000000 666.0000000000
1178.0000000000 756.0000000000 721.0000000000
1180.0000000000 791.0000000000 725.0000000000
1130.0000000000 800.0000000000 724.0000000000
1155.0000000000 811.0000000000 709.0000000000
1183.0000000000 763.0000000000 674.0000000000
1134.0000000000 749.0000000000 677.0000000000
1121.0000000000 763.0000000000 672.0000000000
1126.0000000000 809.0000000000 696.0000000000
1174.0000000000 746.0000000000 716.0000000000
1166.0000000000 745.0000000000 660.0000000000
1179.0000000000 752.0000000000 674.0000000000
1142.0000000000 739.0000000000 673.0000000000
1128.0000000000 746.0000000000 706.0000000000
1167.0000000000 742.0000000000 702.0000000000
1139.0000000000 812.0000000000 673.0000000000
1156.0000000000 741.0000000000 659.0000000000
1169.0000000000 749.0000000000 712.0000000000
1122.0000000000 794.0000000000 672.0000000000
1134.0000000000 810.0000000000 674.0000000000
1137.0000000000 742.0000000000 701.0000000000
1173.0000000000 744.0000000000 704.0000000000
1120.0000000000 760.0000000000 712.0000000000
1178.0000000000 760.0000000000 662.0000000000
1122.0000000000 793.0000000000 662.0000000000
1132.0000000000 742.0000000000 715.0000000000
1139.0000000000 748.0000000000 718.0000000000
1117.0000000000 794.0000000000 697.0000000000
1135.0000000000 745.0000000000 661.0000000000
1136.0000000000 746.0000000000 667.0000000000
1125.0000000000 806.0000000000 680.0000000000
1166.0000000000 809.0000000000 666.0000000000
1118.0000000000 806.0000000000 702.0000000000
1164.0000000000 809.0000000000 666.0000000000
1130.0000000000 779.0000000000 678.0000000000
1184.0000000000 799.0000000000 667.0000000000
1175.0000000000 756.0000000000 716.0000000000
1160.0000000000 735.0000000000 678.0000000000
1120.0000000000 746.0000000000 714.0000000000
1180.0000000000 755.0000000000 673.0000000000
1141.0000000000 740.0000000000 672.0000000000
1150.0000000000 743.0000000000 713.0000000000
1162.0000000000 737.0000000000 677.0000000000
1127.0000000000 737.0000000000 708.0000000000
1126.0000000000 734.0000000000 678.0000000000
1140.0000000000 741.0000000000 672.0000000000
1164.0000000000 745.0000000000 658.0000000000
1125.0000000000 794.0000000000 666.0000000000
1183.0000000000 763.0000000000 709.0000000000
1136.0000000000 743.0000000000 672.0000000000
1158.0000000000 738.0000000000 699.0000000000
1123.0000000000 757.0000000000 673.0000000000
1125.0000000000 754.0000000000 672.0000000000
1124.0000000000 756.0000000000 672.0000000000
1123.0000000000 757.0000000000 672.0000000000
1150.0000000000 816.0000000000 706.0000000000
1171.0000000000 809.0000000000 715.0000000000
1123.0000000000 758.0000000000 672.0000000000
1176.0000000000 803.0000000000 669.0000000000
1133.0000000000 809.0000000000 704.0000000000
1142.0000000000 808.0000000000 667.0000000000
1176.0000000000 756.0000000000 660.0000000000
1126.0000000000 812.0000000000 699.0000000000
1171.0000000000 806.0000000000 668.0000000000
1120.0000000000 764.0000000000 672.0000000000
1132.0000000000 804.0000000000 667.0000000000
1149.0000000000 742.0000000000 706.0000000000
1117.0000000000 792.0000000000 696.0000000000
1140.0000000000 808.0000000000 710.0000000000
1131.0000000000 804.0000000000 722.0000000000
1179.0000000000 749.0000000000 701.0000000000
1155.0000000000 740.0000000000 661.0000000000
1140.0000000000 743.0000000000 660.0000000000
1178.0000000000 754.0000000000 720.0000000000
1128.0000000000 754.0000000000 711.0000000000
1120.0000000000 789.0000000000 672.0000000000
1170.0000000000 743.0000000000 708.0000000000
1178.0000000000 743.0000000000 677.0000000000
1185.0000000000 801.0000000000 695.0000000000
1124.0000000000 744.0000000000 701.0000000000
1152.0000000000 820.0000000000 697.0000000000
1168.0000000000 745.0000000000 662.0000000000
1154.0000000000 736.0000000000 696.0000000000
1119.0000000000 812.0000000000 698.0000000000
1166.0000000000 814.0000000000 697.0000000000
1150.0000000000 742.0000000000 707.0000000000
1139.0000000000 813.0000000000 672.0000000000
1140.0000000000 813.0000000000 672.0000000000
1125.0000000000 738.0000000000 700.0000000000
1189.0000000000 764.0000000000 699.0000000000
1166.0000000000 753.0000000000 720.0000000000
1130.0000000000 762.0000000000 722.0000000000
1116.0000000000 756.0000000000 699.0000000000
1134.0000000000 783.0000000000 677.0000000000
1141.0000000000 814.0000000000 672.0000000000
1143.0000000000 814.0000000000 672.0000000000
1126.0000000000 735.0000000000 701.0000000000
1179.0000000000 746.0000000000 695.0000000000
1161.0000000000 746.0000000000 715.0000000000
1168.0000000000 812.0000000000 695.0000000000
1130.0000000000 791.0000000000 657.0000000000
1166.0000000000 746.0000000000 660.0000000000
1167.0000000000 741.0000000000 672.0000000000
1142.0000000000 734.0000000000 667.0000000000
1130.0000000000 753.0000000000 720.0000000000
1128.0000000000 739.0000000000 707.0000000000
1168.0000000000 742.0000000000 672.0000000000
1139.0000000000 813.0000000000 674.0000000000
1126.0000000000 800.0000000000 673.0000000000
1177.0000000000 751.0000000000 673.0000000000
1178.0000000000 749.0000000000 672.0000000000
1130.0000000000 810.0000000000 701.0000000000
1145.0000000000 739.0000000000 703.0000000000
1140.0000000000 815.0000000000 695.0000000000
1181.0000000000 753.0000000000 672.0000000000
1163.0000000000 745.0000000000 715.0000000000
1182.0000000000 756.0000000000 672.0000000000
1155.0000000000 819.0000000000 698.0000000000
1143.0000000000 770.0000000000 677.0000000000
1170.0000000000 743.0000000000 707.0000000000
1124.0000000000 755.0000000000 673.0000000000
1129.0000000000 794.0000000000 720.0000000000
1149.0000000000 767.0000000000 677.0000000000
1118.0000000000 775.0000000000 710.0000000000
1133.0000000000 761.0000000000 724.0000000000
1135.0000000000 805.0000000000 661.0000000000
1124.0000000000 782.0000000000 722.0000000000
1130.0000000000 811.0000000000 706.0000000000
1183.0000000000 758.0000000000 672.0000000000
1127.0000000000 786.0000000000 657.0000000000
1129.0000000000 790.0000000000 657.0000000000
1121.0000000000 795.0000000000 708.0000000000
1182.0000000000 800.0000000000 669.0000000000
1165.0000000000 739.0000000000 674.0000000000
1184.0000000000 760.0000000000 672.0000000000
1131.0000000000 808.0000000000 674.0000000000
1185.0000000000 784.0000000000 715.0000000000
1126.0000000000 745.0000000000 710.0000000000
1122.0000000000 792.0000000000 673.0000000000
1125.0000000000 757.0000000000 660.0000000000
1175.0000000000 811.0000000000 695.0000000000
1181.0000000000 771.0000000000 719.0000000000
1183.0000000000 791.0000000000 714.0000000000
1138.0000000000 750.0000000000 677.0000000000
1178.0000000000 759.0000000000 716.0000000000
1123.0000000000 793.0000000000 673.0000000000
1125.0000000000 805.0000000000 695.0000000000
1179.0000000000 742.0000000000 677.0000000000
1135.0000000000 807.0000000000 662.0000000000
1129.0000000000 803.0000000000 712.0000000000
1125.0000000000 798.0000000000 673.0000000000
1134.0000000000 740.0000000000 701.0000000000
1141.0000000000 755.0000000000 725.0000000000
1126.0000000000 749.0000000000 705.0000000000
1143.0000000000 738.0000000000 673.0000000000
1140.0000000000 740.0000000000 673.0000000000
1140.0000000000 807.0000000000 667.0000000000
1145.0000000000 809.0000000000 712.0000000000
1189.0000000000 764.0000000000 697.0000000000
1171.0000000000 752.0000000000 720.0000000000
1158.0000000000 740.0000000000 702.0000000000
1173.0000000000 805.0000000000 668.0000000000
1184.0000000000 777.0000000000 714.0000000000
1125.0000000000 748.0000000000 718.0000000000
1139.0000000000 806.0000000000 667.0000000000
1121.0000000000 762.0000000000 673.0000000000
1179.0000000000 754.0000000000 722.0000000000
1148.0000000000 806.0000000000 716.0000000000
1146.0000000000 770.0000000000 676.0000000000
1120.0000000000 751.0000000000 698.0000000000
1135.0000000000 759.0000000000 724.0000000000
1123.0000000000 782.0000000000 719.0000000000
1128.0000000000 755.0000000000 712.0000000000
1173.0000000000 745.0000000000 712.0000000000
1126.0000000000 739.0000000000 705.0000000000
1128.0000000000 806.0000000000 677.0000000000
1175.0000000000 758.0000000000 714.0000000000
1126.0000000000 799.0000000000 673.0000000000
1127.0000000000 785.0000000000 657.0000000000
1160.0000000000 743.0000000000 705.0000000000
1155.0000000000 744.0000000000 713.0000000000
1127.0000000000 755.0000000000 659.0000000000
1160.0000000000 740.0000000000 704.0000000000
1124.0000000000 772.0000000000 724.0000000000
1140.0000000000 812.0000000000 673.0000000000
1131.0000000000 811.0000000000 705.0000000000
1156.0000000000 741.0000000000 669.0000000000
1130.0000000000 806.0000000000 708.0000000000
1130.0000000000 789.0000000000 658.0000000000
1143.0000000000 735.0000000000 699.0000000000
1143.0000000000 814.0000000000 673.0000000000
1155.0000000000 819.0000000000 705.0000000000
1179.0000000000 761.0000000000 715.0000000000
1135.0000000000 814.0000000000 703.0000000000
1141.0000000000 817.0000000000 695.0000000000
1139.0000000000 740.0000000000 705.0000000000
1177.0000000000 759.0000000000 658.0000000000
1184.0000000000 757.0000000000 667.0000000000
1179.0000000000 802.0000000000 716.0000000000
1184.0000000000 758.0000000000 707.0000000000
1156.0000000000 816.0000000000 698.0000000000
1168.0000000000 744.0000000000 667.0000000000
1118.0000000000 750.0000000000 703.0000000000
1180.0000000000 813.0000000000 712.0000000000
1168.0000000000 742.0000000000 673.0000000000
1167.0000000000 741.0000000000 673.0000000000
1136.0000000000 811.0000000000 672.0000000000
1163.0000000000 739.0000000000 673.0000000000
1119.0000000000 743.0000000000 712.0000000000
1133.0000000000 812.0000000000 701.0000000000
1122.0000000000 759.0000000000 672.0000000000
1158.0000000000 739.0000000000 703.0000000000
1146.0000000000 737.0000000000 694.0000000000
1140.0000000000 807.0000000000 669.0000000000
1138.0000000000 815.0000000000 703.0000000000
1126.0000000000 796.0000000000 667.0000000000
1178.0000000000 746.0000000000 676.0000000000
1132.0000000000 811.0000000000 703.0000000000
1186.0000000000 779.0000000000 715.0000000000
1161.0000000000 738.0000000000 673.0000000000
1181.0000000000 750.0000000000 696.0000000000
1169.0000000000 745.0000000000 713.0000000000
1141.0000000000 737.0000000000 674.0000000000
1139.0000000000 737.0000000000 674.0000000000
1135.0000000000 740.0000000000 674.0000000000
1133.0000000000 741.0000000000 674.0000000000
1189.0000000000 759.0000000000 698.0000000000
1119.0000000000 750.0000000000 697.0000000000
1132.0000000000 741.0000000000 674.0000000000
1152.0000000000 816.0000000000 700.0000000000
1114.0000000000 735.0000000000 697.0000000000
1156.0000000000 741.0000000000 707.0000000000
1121.0000000000 805.0000000000 694.0000000000
1175.0000000000 807.0000000000 677.0000000000
1130.0000000000 742.0000000000 703.0000000000
1126.0000000000 803.0000000000 678.0000000000
1127.0000000000 755.0000000000 711.0000000000
1174.0000000000 803.0000000000 668.0000000000
1114.0000000000 760.0000000000 701.0000000000
1123.0000000000 752.0000000000 674.0000000000
1147.0000000000 741.0000000000 659.0000000000
1137.0000000000 816.0000000000 695.0000000000
1123.0000000000 753.0000000000 674.0000000000
1153.0000000000 816.0000000000 703.0000000000
1124.0000000000 788.0000000000 718.0000000000
1122.0000000000 754.0000000000 674.0000000000
1127.0000000000 817.0000000000 701.0000000000
1121.0000000000 757.0000000000 674.0000000000
1125.0000000000 806.0000000000 697.0000000000
1185.0000000000 758.0000000000 710.0000000000
1178.0000000000 805.0000000000 722.0000000000
1185.0000000000 736.0000000000 698.0000000000
1119.0000000000 793.0000000000 708.0000000000
1116.0000000000 809.0000000000 700.0000000000
1139.0000000000 811.0000000000 710.0000000000
1123.0000000000 805.0000000000 697.0000000000
1124.0000000000 755.0000000000 672.0000000000
1175.0000000000 754.0000000000 661.0000000000
1182.0000000000 797.0000000000 667.0000000000
1179.0000000000 756.0000000000 706.0000000000
1127.0000000000 812.0000000000 701.0000000000
1148.0000000000 814.0000000000 677.0000000000
1186.0000000000 759.0000000000 699.0000000000
1120.0000000000 792.0000000000 674.0000000000
1163.0000000000 739.0000000000 676.0000000000
1135.0000000000 807.0000000000 712.0000000000
1150.0000000000 807.0000000000 716.0000000000
1121.0000000000 793.0000000000 674.0000000000
1124.0000000000 799.0000000000 674.0000000000
1122.0000000000 734.0000000000 704.0000000000
1181.0000000000 809.0000000000 697.0000000000
1162.0000000000 808.0000000000 668.0000000000
1123.0000000000 798.0000000000 674.0000000000
1129.0000000000 805.0000000000 674.0000000000
1128.0000000000 798.0000000000 721.0000000000
1137.0000000000 742.0000000000 673.0000000000
1115.0000000000 757.0000000000 706.0000000000
1184.0000000000 755.0000000000 668.0000000000
1184.0000000000 801.0000000000 694.0000000000
1188.0000000000 757.0000000000 677.0000000000
1129.0000000000 806.0000000000 674.0000000000
1116.0000000000 757.0000000000 695.0000000000
1128.0000000000 760.0000000000 722.0000000000
1136.0000000000 806.0000000000 710.0000000000
1153.0000000000 740.0000000000 667.0000000000
1127.0000000000 736.0000000000 703.0000000000
1130.0000000000 780.0000000000 678.0000000000
1128.0000000000 788.0000000000 657.0000000000
1136.0000000000 811.0000000000 674.0000000000
1145.0000000000 738.0000000000 703.0000000000
1138.0000000000 812.0000000000 674.0000000000
1185.0000000000 802.0000000000 695.0000000000
1154.0000000000 818.0000000000 704.0000000000
1115.0000000000 792.0000000000 705.0000000000
1122.0000000000 758.0000000000 717.0000000000
1131.0000000000 742.0000000000 674.0000000000
1118.0000000000 803.0000000000 705.0000000000
1138.0000000000 738.0000000000 674.0000000000
1140.0000000000 737.0000000000 674.0000000000
1184.0000000000 762.0000000000 708.0000000000
1167.0000000000 740.0000000000 674.0000000000
1164.0000000000 744.0000000000 659.0000000000
1125.0000000000 742.0000000000 703.0000000000
1170.0000000000 742.0000000000 674.0000000000
1186.0000000000 740.0000000000 700.0000000000
1121.0000000000 793.0000000000 712.0000000000
1151.0000000000 810.0000000000 714.0000000000
1150.0000000000 809.0000000000 714.0000000000
1178.0000000000 751.0000000000 674.0000000000
1137.0000000000 737.0000000000 696.0000000000
1130.0000000000 745.0000000000 669.0000000000
1142.0000000000 746.0000000000 680.0000000000
1170.0000000000 810.0000000000 709.0000000000
1179.0000000000 753.0000000000 674.0000000000
1132.0000000000 745.0000000000 707.0000000000
1181.0000000000 757.0000000000 674.0000000000
1148.0000000000 809.0000000000 714.0000000000
1182.0000000000 758.0000000000 674.0000000000
1182.0000000000 759.0000000000 674.0000000000
1116.0000000000 735.0000000000 705.0000000000
1130.0000000000 801.0000000000 717.0000000000
1129.0000000000 810.0000000000 710.0000000000
1178.0000000000 810.0000000000 695.0000000000
1130.0000000000 761.0000000000 657.0000000000
1116.0000000000 752.0000000000 701.0000000000
1129.0000000000 799.0000000000 714.0000000000
1179.0000000000 763.0000000000 658.0000000000
1181.0000000000 757.0000000000 673.0000000000
1185.0000000000 757.0000000000 669.0000000000
1181.0000000000 798.0000000000 669.0000000000
1138.0000000000 743.0000000000 667.0000000000
1130.0000000000 745.0000000000 667.0000000000
1169.0000000000 810.0000000000 695.0000000000
1116.0000000000 803.0000000000 705.0000000000
1132.0000000000 803.0000000000 667.0000000000
1148.0000000000 767.0000000000 676.0000000000
1147.0000000000 808.0000000000 714.0000000000
1135.0000000000 805.0000000000 667.0000000000
1142.0000000000 810.0000000000 667.0000000000
1163.0000000000 744.0000000000 659.0000000000
1154.0000000000 812.0000000000 668.0000000000
1135.0000000000 809.0000000000 711.0000000000
1124.0000000000 756.0000000000 673.0000000000
1154.0000000000 812.0000000000 667.0000000000
1181.0000000000 810.0000000000 702.0000000000
1131.0000000000 806.0000000000 709.0000000000
1143.0000000000 736.0000000000 699.0000000000
1163.0000000000 808.0000000000 667.0000000000
1167.0000000000 808.0000000000 667.0000000000
1154.0000000000 803.0000000000 720.0000000000
1172.0000000000 805.0000000000 667.0000000000
1175.0000000000 754.0000000000 716.0000000000
1169.0000000000 741.0000000000 697.0000000000
1175.0000000000 809.0000000000 700.0000000000
1183.0000000000 797.0000000000 667.0000000000
1186.0000000000 758.0000000000 669.0000000000
1132.0000000000 804.0000000000 715.0000000000
1184.0000000000 798.0000000000 667.0000000000
1140.0000000000 750.0000000000 677.0000000000
1184.0000000000 800.0000000000 694.0000000000
1124.0000000000 748.0000000000 719.0000000000
1177.0000000000 800.0000000000 716.0000000000
1163.0000000000 747.0000000000 717.0000000000
1128.0000000000 804.0000000000 678.0000000000
1126.0000000000 808.0000000000 677.0000000000
1179.0000000000 762.0000000000 658.0000000000
1147.0000000000 736.0000000000 699.0000000000
1118.0000000000 772.0000000000 716.0000000000
1121.0000000000 754.0000000000 706.0000000000
1184.0000000000 802.0000000000 696.0000000000
1161.0000000000 755.0000000000 723.0000000000
1182.0000000000 795.0000000000 717.0000000000
1131.0000000000 743.0000000000 701.0000000000
1153.0000000000 738.0000000000 667.0000000000
1156.0000000000 815.0000000000 696.0000000000
1167.0000000000 747.0000000000 716.0000000000
1133.0000000000 809.0000000000 674.0000000000
1155.0000000000 737.0000000000 667.0000000000
1184.0000000000 768.0000000000 714.0000000000
1120.0000000000 752.0000000000 705.0000000000
1151.0000000000 738.0000000000 667.0000000000
1117.0000000000 795.0000000000 699.0000000000
1139.0000000000 745.0000000000 713.0000000000
1179.0000000000 763.0000000000 662.0000000000
1118.0000000000 798.0000000000 697.0000000000
1178.0000000000 758.0000000000 662.0000000000
1161.0000000000 736.0000000000 678.0000000000
1180.0000000000 738.0000000000 678.0000000000
1120.0000000000 796.0000000000 707.0000000000
1148.0000000000 807.0000000000 715.0000000000
1149.0000000000 815.0000000000 706.0000000000
1135.0000000000 782.0000000000 677.0000000000
1130.0000000000 799.0000000000 716.0000000000
1120.0000000000 751.0000000000 696.0000000000
1127.0000000000 808.0000000000 696.0000000000
1169.0000000000 757.0000000000 723.0000000000
1124.0000000000 797.0000000000 673.0000000000
1159.0000000000 742.0000000000 660.0000000000
1140.0000000000 808.0000000000 668.0000000000
1154.0000000000 811.0000000000 668.0000000000
1164.0000000000 810.0000000000 668.0000000000
1166.0000000000 811.0000000000 668.0000000000
1122.0000000000 788.0000000000 661.0000000000
1182.0000000000 811.0000000000 701.0000000000
1153.0000000000 737.0000000000 697.0000000000
1176.0000000000 808.0000000000 700.0000000000
1141.0000000000 813.0000000000 704.0000000000
1180.0000000000 758.0000000000 706.0000000000
1176.0000000000 803.0000000000 668.0000000000
1182.0000000000 798.0000000000 668.0000000000
1119.0000000000 774.0000000000 718.0000000000
1151.0000000000 741.0000000000 705.0000000000
1182.0000000000 751.0000000000 668.0000000000
1158.0000000000 818.0000000000 698.0000000000
1181.0000000000 807.0000000000 698.0000000000
1174.0000000000 753.0000000000 718.0000000000
1122.0000000000 798.0000000000 708.0000000000
1130.0000000000 740.0000000000 699.0000000000
1131.0000000000 819.0000000000 698.0000000000
1136.0000000000 816.0000000000 698.0000000000
1137.0000000000 815.0000000000 698.0000000000
1120.0000000000 799.0000000000 702.0000000000
1128.0000000000 746.0000000000 677.0000000000
1139.0000000000 816.0000000000 698.0000000000
1139.0000000000 817.0000000000 698.0000000000
1181.0000000000 756.0000000000 704.0000000000
1141.0000000000 819.0000000000 698.0000000000
1133.0000000000 742.0000000000 701.0000000000
1131.0000000000 790.0000000000 658.0000000000
1154.0000000000 820.0000000000 698.0000000000
1155.0000000000 817.0000000000 698.0000000000
1157.0000000000 816.0000000000 698.0000000000
1158.0000000000 817.0000000000 698.0000000000
1158.0000000000 740.0000000000 701.0000000000
1167.0000000000 814.0000000000 698.0000000000
1128.0000000000 764.0000000000 657.0000000000
1180.0000000000 745.0000000000 709.0000000000
1176.0000000000 809.0000000000 698.0000000000
1126.0000000000 814.0000000000 697.0000000000
1181.0000000000 806.0000000000 698.0000000000
1172.0000000000 749.0000000000 710.0000000000
1116.0000000000 805.0000000000 705.0000000000
1178.0000000000 761.0000000000 712.0000000000
1182.0000000000 805.0000000000 698.0000000000
1183.0000000000 803.0000000000 698.0000000000
1130.0000000000 808.0000000000 710.0000000000
1188.0000000000 800.0000000000 698.0000000000
1142.0000000000 735.0000000000 680.0000000000
1186.0000000000 798.0000000000 698.0000000000
1130.0000000000 739.0000000000 700.0000000000
1172.0000000000 744.0000000000 703.0000000000
1189.0000000000 763.0000000000 698.0000000000
1135.0000000000 747.0000000000 711.0000000000
1188.0000000000 763.0000000000 698.0000000000
1186.0000000000 761.0000000000 698.0000000000
1186.0000000000 760.0000000000 698.0000000000
1188.0000000000 756.0000000000 698.0000000000
1133.0000000000 748.0000000000 678.0000000000
1139.0000000000 818.0000000000 705.0000000000
1187.0000000000 755.0000000000 698.0000000000
1131.0000000000 789.0000000000 724.0000000000
1184.0000000000 755.0000000000 698.0000000000
1168.0000000000 748.0000000000 714.0000000000
1179.0000000000 803.0000000000 713.0000000000
1183.0000000000 754.0000000000 698.0000000000
1182.0000000000 750.0000000000 698.0000000000
1183.0000000000 748.0000000000 698.0000000000
1178.0000000000 764.0000000000 720.0000000000
1183.0000000000 747.0000000000 698.0000000000
1184.0000000000 766.0000000000 707.0000000000
1131.0000000000 800.0000000000 718.0000000000
1184.0000000000 744.0000000000 698.0000000000
1156.0000000000 740.0000000000 705.0000000000
1131.0000000000 743.0000000000 715.0000000000
1143.0000000000 802.0000000000 659.0000000000
1185.0000000000 742.0000000000 698.0000000000
1128.0000000000 741.0000000000 699.0000000000
1123.0000000000 756.0000000000 719.0000000000
1121.0000000000 766.0000000000 711.0000000000
1186.0000000000 739.0000000000 698.0000000000
1144.0000000000 738.0000000000 702.0000000000
1184.0000000000 804.0000000000 716.0000000000
1157.0000000000 740.0000000000 706.0000000000
1181.0000000000 813.0000000000 701.0000000000
1129.0000000000 758.0000000000 720.0000000000
1129.0000000000 747.0000000000 714.0000000000
1136.0000000000 742.0000000000 706.0000000000
1120.0000000000 773.0000000000 718.0000000000
1174.0000000000 742.0000000000 698.0000000000
1121.0000000000 796.0000000000 709.0000000000
1126.0000000000 793.0000000000 660.0000000000
1135.0000000000 806.0000000000 710.0000000000
1122.0000000000 795.0000000000 712.0000000000
1170.0000000000 740.0000000000 698.0000000000
1169.0000000000 741.0000000000 698.0000000000
1134.0000000000 738.0000000000 700.0000000000
1163.0000000000 739.0000000000 698.0000000000
1162.0000000000 739.0000000000 698.0000000000
1161.0000000000 738.0000000000 698.0000000000
1125.0000000000 740.0000000000 701.0000000000
1180.0000000000 762.0000000000 714.0000000000
1158.0000000000 738.0000000000 698.0000000000
1147.0000000000 737.0000000000 698.0000000000
1145.0000000000 738.0000000000 698.0000000000
1143.0000000000 736.0000000000 698.0000000000
1125.0000000000 739.0000000000 700.0000000000
1143.0000000000 734.0000000000 698.0000000000
1118.0000000000 774.0000000000 713.0000000000
1133.0000000000 738.0000000000 698.0000000000
1130.0000000000 761.0000000000 658.0000000000
1130.0000000000 740.0000000000 698.0000000000
1156.0000000000 810.0000000000 710.0000000000
1125.0000000000 811.0000000000 699.0000000000
1125.0000000000 739.0000000000 698.0000000000
1132.0000000000 801.0000000000 722.0000000000
1126.0000000000 738.0000000000 698.0000000000
1146.0000000000 813.0000000000 678.0000000000
1135.0000000000 748.0000000000 712.0000000000
1132.0000000000 791.0000000000 724.0000000000
1184.0000000000 768.0000000000 716.0000000000
1120.0000000000 748.0000000000 699.0000000000
1120.0000000000 749.0000000000 699.0000000000
1119.0000000000 750.0000000000 699.0000000000
1133.0000000000 744.0000000000 705.0000000000
1113.0000000000 812.0000000000 704.0000000000
1117.0000000000 755.0000000000 699.0000000000
1182.0000000000 763.0000000000 712.0000000000
1184.0000000000 738.0000000000 698.0000000000
1174.0000000000 809.0000000000 699.0000000000
1117.0000000000 792.0000000000 699.0000000000
1186.0000000000 799.0000000000 696.0000000000
1176.0000000000 750.0000000000 702.0000000000
1120.0000000000 801.0000000000 699.0000000000
1121.0000000000 802.0000000000 699.0000000000
1136.0000000000 813.0000000000 704.0000000000
1120.0000000000 803.0000000000 699.0000000000
1185.0000000000 746.0000000000 701.0000000000
1120.0000000000 805.0000000000 699.0000000000
1119.0000000000 806.0000000000 699.0000000000
1135.0000000000 746.0000000000 714.0000000000
1119.0000000000 807.0000000000 699.0000000000
1118.0000000000 808.0000000000 699.0000000000
1145.0000000000 770.0000000000 676.0000000000
1121.0000000000 812.0000000000 699.0000000000
1126.0000000000 813.0000000000 699.0000000000
1127.0000000000 814.0000000000 699.0000000000
1130.0000000000 819.0000000000 699.0000000000
1133.0000000000 801.0000000000 722.0000000000
1126.0000000000 753.0000000000 721.0000000000
1138.0000000000 740.0000000000 709.0000000000
1122.0000000000 803.0000000000 698.0000000000
1131.0000000000 805.0000000000 710.0000000000
1134.0000000000 816.0000000000 699.0000000000
1135.0000000000 813.0000000000 699.0000000000
1170.0000000000 804.0000000000 722.0000000000
1136.0000000000 813.0000000000 699.0000000000
1139.0000000000 814.0000000000 699.0000000000
1139.0000000000 817.0000000000 699.0000000000
1147.0000000000 805.0000000000 657.0000000000
1140.0000000000 819.0000000000 699.0000000000
1152.0000000000 815.0000000000 699.0000000000
1166.0000000000 814.0000000000 699.0000000000
1167.0000000000 813.0000000000 699.0000000000
1143.0000000000 804.0000000000 720.0000000000
1129.0000000000 745.0000000000 712.0000000000
1171.0000000000 813.0000000000 699.0000000000
1168.0000000000 743.0000000000 713.0000000000
1172.0000000000 812.0000000000 699.0000000000
1175.0000000000 809.0000000000 699.0000000000
1129.0000000000 746.0000000000 711.0000000000
1156.0000000000 752.0000000000 721.0000000000
1176.0000000000 808.0000000000 699.0000000000
1185.0000000000 743.0000000000 698.0000000000
1181.0000000000 806.0000000000 699.0000000000
1126.0000000000 795.0000000000 718.0000000000
1182.0000000000 804.0000000000 699.0000000000
1173.0000000000 750.0000000000 709.0000000000
1186.0000000000 800.0000000000 699.0000000000
1127.0000000000 809.0000000000 702.0000000000
1120.0000000000 767.0000000000 713.0000000000
1185.0000000000 797.0000000000 700.0000000000
1130.0000000000 743.0000000000 702.0000000000
1117.0000000000 744.0000000000 717.0000000000
1172.0000000000 745.0000000000 705.0000000000
1188.0000000000 761.0000000000 699.0000000000
1181.0000000000 802.0000000000 711.0000000000
1187.0000000000 758.0000000000 699.0000000000
1189.0000000000 758.0000000000 699.0000000000
1189.0000000000 755.0000000000 699.0000000000
1173.0000000000 798.0000000000 722.0000000000
1183.0000000000 748.0000000000 699.0000000000
1137.0000000000 744.0000000000 667.0000000000
1184.0000000000 746.0000000000 699.0000000000
1124.0000000000 760.0000000000 660.0000000000
1185.0000000000 745.0000000000 699.0000000000
1141.0000000000 741.0000000000 706.0000000000
1169.0000000000 750.0000000000 716.0000000000
1118.0000000000 753.0000000000 698.0000000000
1157.0000000000 816.0000000000 696.0000000000
1185.0000000000 742.0000000000 699.0000000000
1120.0000000000 751.0000000000 706.0000000000
1186.0000000000 738.0000000000 699.0000000000
1130.0000000000 744.0000000000 668.0000000000
1176.0000000000 759.0000000000 659.0000000000
1182.0000000000 737.0000000000 699.0000000000
1178.0000000000 791.0000000000 723.0000000000
1129.0000000000 739.0000000000 677.0000000000
1174.0000000000 740.0000000000 699.0000000000
1169.0000000000 740.0000000000 699.0000000000
1168.0000000000 739.0000000000 699.0000000000
1164.0000000000 739.0000000000 699.0000000000
1163.0000000000 738.0000000000 699.0000000000
1157.0000000000 737.0000000000 699.0000000000
1156.0000000000 737.0000000000 699.0000000000
1127.0000000000 771.0000000000 723.0000000000
1120.0000000000 750.0000000000 698.0000000000
1122.0000000000 751.0000000000 708.0000000000
1144.0000000000 737.0000000000 699.0000000000
1142.0000000000 817.0000000000 696.0000000000
1115.0000000000 805.0000000000 706.0000000000
1117.0000000000 793.0000000000 704.0000000000
1122.0000000000 760.0000000000 712.0000000000
1160.0000000000 812.0000000000 704.0000000000
1156.0000000000 813.0000000000 704.0000000000
1138.0000000000 738.0000000000 699.0000000000
1176.0000000000 744.0000000000 697.0000000000
1134.0000000000 738.0000000000 699.0000000000
1133.0000000000 739.0000000000 699.0000000000
1129.0000000000 740.0000000000 699.0000000000
1140.0000000000 809.0000000000 709.0000000000
1179.0000000000 760.0000000000 716.0000000000
1127.0000000000 742.0000000000 699.0000000000
1126.0000000000 743.0000000000 699.0000000000
1123.0000000000 772.0000000000 722.0000000000
1125.0000000000 742.0000000000 699.0000000000
1126.0000000000 737.0000000000 699.0000000000
1126.0000000000 734.0000000000 699.0000000000
1130.0000000000 802.0000000000 713.0000000000
1185.0000000000 787.0000000000 715.0000000000
1117.0000000000 751.0000000000 700.0000000000
1116.0000000000 754.0000000000 700.0000000000
1115.0000000000 757.0000000000 700.0000000000
1115.0000000000 790.0000000000 700.0000000000
1116.0000000000 791.0000000000 700.0000000000
1118.0000000000 796.0000000000 700.0000000000
1119.0000000000 796.0000000000 700.0000000000
1120.0000000000 804.0000000000 700.0000000000
1119.0000000000 813.0000000000 700.0000000000
1121.0000000000 813.0000000000 700.0000000000
1168.0000000000 808.0000000000 715.0000000000
1134.0000000000 813.0000000000 700.0000000000
1181.0000000000 756.0000000000 710.0000000000
1127.0000000000 749.0000000000 709.0000000000
1135.0000000000 812.0000000000 700.0000000000
1136.0000000000 812.0000000000 700.0000000000
1129.0000000000 763.0000000000 658.0000000000
1162.0000000000 814.0000000000 703.0000000000
1140.0000000000 813.0000000000 676.0000000000
1154.0000000000 814.0000000000 702.0000000000
1139.0000000000 815.0000000000 700.0000000000
1151.0000000000 817.0000000000 700.0000000000
1118.0000000000 772.0000000000 715.0000000000
1152.0000000000 815.0000000000 700.0000000000
1145.0000000000 734.0000000000 696.0000000000
1116.0000000000 739.0000000000 697.0000000000
1153.0000000000 814.0000000000 700.0000000000
1119.0000000000 800.0000000000 697.0000000000
1120.0000000000 797.0000000000 704.0000000000
1144.0000000000 808.0000000000 714.0000000000
1130.0000000000 811.0000000000 708.0000000000
1137.0000000000 747.0000000000 712.0000000000
1137.0000000000 760.0000000000 726.0000000000
1173.0000000000 740.0000000000 698.0000000000
1174.0000000000 809.0000000000 700.0000000000
1124.0000000000 799.0000000000 711.0000000000
1181.0000000000 807.0000000000 700.0000000000
1120.0000000000 777.0000000000 718.0000000000
1181.0000000000 804.0000000000 700.0000000000
1182.0000000000 749.0000000000 696.0000000000
1162.0000000000 744.0000000000 658.0000000000
1125.0000000000 743.0000000000 703.0000000000
1186.0000000000 800.0000000000 700.0000000000
1177.0000000000 759.0000000000 716.0000000000
1186.0000000000 798.0000000000 700.0000000000
1168.0000000000 808.0000000000 714.0000000000
1186.0000000000 796.0000000000 700.0000000000
1188.0000000000 761.0000000000 700.0000000000
1186.0000000000 759.0000000000 700.0000000000
1187.0000000000 758.0000000000 700.0000000000
1184.0000000000 744.0000000000 700.0000000000
1127.0000000000 798.0000000000 717.0000000000
1188.0000000000 758.0000000000 700.0000000000
1183.0000000000 754.0000000000 700.0000000000
1182.0000000000 753.0000000000 700.0000000000
1182.0000000000 749.0000000000 700.0000000000
1177.0000000000 755.0000000000 709.0000000000
1184.0000000000 747.0000000000 700.0000000000
1127.0000000000 741.0000000000 699.0000000000
1186.0000000000 737.0000000000 700.0000000000
1185.0000000000 736.0000000000 700.0000000000
1183.0000000000 736.0000000000 700.0000000000
1182.0000000000 737.0000000000 700.0000000000
1176.0000000000 740.0000000000 700.0000000000
1134.0000000000 814.0000000000 701.0000000000
1175.0000000000 741.0000000000 699.0000000000
1165.0000000000 738.0000000000 700.0000000000
1121.0000000000 792.0000000000 710.0000000000
1118.0000000000 768.0000000000 714.0000000000
1145.0000000000 737.0000000000 700.0000000000
1175.0000000000 803.0000000000 667.0000000000
1120.0000000000 817.0000000000 703.0000000000
1131.0000000000 739.0000000000 700.0000000000
1120.0000000000 801.0000000000 708.0000000000
1129.0000000000 740.0000000000 700.0000000000
1182.0000000000 804.0000000000 694.0000000000
1125.0000000000 743.0000000000 700.0000000000
1124.0000000000 742.0000000000 700.0000000000
1125.0000000000 755.0000000000 715.0000000000
1124.0000000000 740.0000000000 700.0000000000
1171.0000000000 744.0000000000 705.0000000000
1126.0000000000 737.0000000000 700.0000000000
1182.0000000000 807.0000000000 697.0000000000
1169.0000000000 805.0000000000 721.0000000000
1155.0000000000 741.0000000000 707.0000000000
1117.0000000000 753.0000000000 701.0000000000
1129.0000000000 748.0000000000 712.0000000000
1114.0000000000 755.0000000000 701.0000000000
1117.0000000000 753.0000000000 698.0000000000
1115.0000000000 758.0000000000 701.0000000000
1133.0000000000 744.0000000000 709.0000000000
1115.0000000000 760.0000000000 701.0000000000
1126.0000000000 738.0000000000 707.0000000000
1129.0000000000 771.0000000000 725.0000000000
1175.0000000000 740.0000000000 700.0000000000
1130.0000000000 804.0000000000 712.0000000000
1185.0000000000 737.0000000000 699.0000000000
1141.0000000000 821.0000000000 697.0000000000
1169.0000000000 742.0000000000 676.0000000000
1165.0000000000 806.0000000000 715.0000000000
1185.0000000000 761.0000000000 709.0000000000
1127.0000000000 744.0000000000 703.0000000000
1120.0000000000 805.0000000000 701.0000000000
1137.0000000000 799.0000000000 722.0000000000
1119.0000000000 806.0000000000 701.0000000000
1141.0000000000 739.0000000000 673.0000000000
1172.0000000000 747.0000000000 708.0000000000
1128.0000000000 803.0000000000 711.0000000000
1169.0000000000 747.0000000000 714.0000000000
1139.0000000000 807.0000000000 714.0000000000
1124.0000000000 761.0000000000 660.0000000000
1139.0000000000 809.0000000000 716.0000000000
1125.0000000000 815.0000000000 701.0000000000
1123.0000000000 752.0000000000 711.0000000000
1123.0000000000 797.0000000000 710.0000000000
1126.0000000000 815.0000000000 701.0000000000
1127.0000000000 816.0000000000 701.0000000000
1120.0000000000 796.0000000000 704.0000000000
1129.0000000000 815.0000000000 701.0000000000
1183.0000000000 794.0000000000 717.0000000000
1132.0000000000 811.0000000000 701.0000000000
1133.0000000000 813.0000000000 701.0000000000
1134.0000000000 815.0000000000 701.0000000000
1138.0000000000 815.0000000000 701.0000000000
1150.0000000000 818.0000000000 701.0000000000
1162.0000000000 815.0000000000 701.0000000000
1159.0000000000 744.0000000000 713.0000000000
1124.0000000000 748.0000000000 710.0000000000
1172.0000000000 814.0000000000 701.0000000000
1121.0000000000 790.0000000000 673.0000000000
1119.0000000000 778.0000000000 715.0000000000
1173.0000000000 813.0000000000 701.0000000000
1184.0000000000 769.0000000000 714.0000000000
1183.0000000000 769.0000000000 713.0000000000
1177.0000000000 812.0000000000 701.0000000000
1181.0000000000 812.0000000000 701.0000000000
1182.0000000000 808.0000000000 701.0000000000
1183.0000000000 807.0000000000 701.0000000000
1136.0000000000 754.0000000000 724.0000000000
1129.0000000000 746.0000000000 709.0000000000
1185.0000000000 800.0000000000 701.0000000000
1134.0000000000 810.0000000000 672.0000000000
1182.0000000000 757.0000000000 701.0000000000
1182.0000000000 756.0000000000 701.0000000000
1162.0000000000 741.0000000000 704.0000000000
1135.0000000000 806.0000000000 668.0000000000
1181.0000000000 755.0000000000 701.0000000000
1181.0000000000 751.0000000000 668.0000000000
1184.0000000000 747.0000000000 701.0000000000
1126.0000000000 814.0000000000 702.0000000000
1185.0000000000 743.0000000000 701.0000000000
1177.0000000000 785.0000000000 659.0000000000
1186.0000000000 742.0000000000 701.0000000000
1183.0000000000 736.0000000000 701.0000000000
1178.0000000000 743.0000000000 701.0000000000
1116.0000000000 747.0000000000 717.0000000000
1146.0000000000 735.0000000000 678.0000000000
1174.0000000000 745.0000000000 701.0000000000
1172.0000000000 744.0000000000 701.0000000000
1140.0000000000 749.0000000000 680.0000000000
1123.0000000000 736.0000000000 707.0000000000
1170.0000000000 744.0000000000 701.0000000000
1177.0000000000 745.0000000000 697.0000000000
1167.0000000000 743.0000000000 701.0000000000
1187.0000000000 802.0000000000 698.0000000000
1166.0000000000 742.0000000000 701.0000000000
1176.0000000000 811.0000000000 704.0000000000
1146.0000000000 737.0000000000 699.0000000000
1158.0000000000 813.0000000000 704.0000000000
1144.0000000000 740.0000000000 701.0000000000
1144.0000000000 739.0000000000 701.0000000000
1146.0000000000 754.0000000000 722.0000000000
1140.0000000000 740.0000000000 701.0000000000
1132.0000000000 742.0000000000 701.0000000000
1179.0000000000 745.0000000000 697.0000000000
1180.0000000000 803.0000000000 716.0000000000
1175.0000000000 743.0000000000 715.0000000000
1183.0000000000 790.0000000000 716.0000000000
1162.0000000000 744.0000000000 660.0000000000
1125.0000000000 743.0000000000 701.0000000000
1177.0000000000 749.0000000000 706.0000000000
1134.0000000000 810.0000000000 706.0000000000
1126.0000000000 805.0000000000 696.0000000000
1128.0000000000 815.0000000000 706.0000000000
1141.0000000000 737.0000000000 677.0000000000
1118.0000000000 751.0000000000 702.0000000000
1118.0000000000 753.0000000000 702.0000000000
1183.0000000000 768.0000000000 714.0000000000
1120.0000000000 804.0000000000 702.0000000000
1120.0000000000 762.0000000000 714.0000000000
1122.0000000000 817.0000000000 702.0000000000
1122.0000000000 816.0000000000 702.0000000000
1164.0000000000 809.0000000000 716.0000000000
1124.0000000000 814.0000000000 702.0000000000
1126.0000000000 813.0000000000 702.0000000000
1143.0000000000 808.0000000000 715.0000000000
1127.0000000000 812.0000000000 702.0000000000
1128.0000000000 746.0000000000 710.0000000000
1128.0000000000 808.0000000000 702.0000000000
1129.0000000000 808.0000000000 702.0000000000
1186.0000000000 784.0000000000 713.0000000000
1122.0000000000 760.0000000000 672.0000000000
1173.0000000000 754.0000000000 714.0000000000
1146.0000000000 738.0000000000 697.0000000000
1152.0000000000 816.0000000000 702.0000000000
1162.0000000000 815.0000000000 702.0000000000
1171.0000000000 814.0000000000 702.0000000000
1176.0000000000 747.0000000000 716.0000000000
1174.0000000000 811.0000000000 702.0000000000
1177.0000000000 811.0000000000 702.0000000000
1136.0000000000 745.0000000000 669.0000000000
1180.0000000000 812.0000000000 702.0000000000
1177.0000000000 802.0000000000 715.0000000000
1183.0000000000 805.0000000000 702.0000000000
1127.0000000000 813.0000000000 704.0000000000
1172.0000000000 777.0000000000 702.0000000000
1128.0000000000 759.0000000000 723.0000000000
1137.0000000000 740.0000000000 705.0000000000
1129.0000000000 787.0000000000 658.0000000000
1119.0000000000 784.0000000000 710.0000000000
1185.0000000000 792.0000000000 710.0000000000
1162.0000000000 739.0000000000 673.0000000000
1186.0000000000 758.0000000000 708.0000000000
1182.0000000000 757.0000000000 702.0000000000
1179.0000000000 753.0000000000 702.0000000000
1177.0000000000 748.0000000000 702.0000000000
1172.0000000000 743.0000000000 709.0000000000
1178.0000000000 748.0000000000 702.0000000000
1179.0000000000 749.0000000000 702.0000000000
1144.0000000000 736.0000000000 694.0000000000
1181.0000000000 749.0000000000 702.0000000000
1136.0000000000 743.0000000000 706.0000000000
1182.0000000000 748.0000000000 702.0000000000
1136.0000000000 817.0000000000 698.0000000000
1141.0000000000 805.0000000000 719.0000000000
1177.0000000000 743.0000000000 702.0000000000
1175.0000000000 744.0000000000 702.0000000000
1146.0000000000 803.0000000000 658.0000000000
1161.0000000000 813.0000000000 704.0000000000
1170.0000000000 743.0000000000 702.0000000000
1179.0000000000 755.0000000000 705.0000000000
1163.0000000000 742.0000000000 702.0000000000
1114.0000000000 813.0000000000 704.0000000000
1159.0000000000 741.0000000000 702.0000000000
1117.0000000000 801.0000000000 704.0000000000
1140.0000000000 739.0000000000 702.0000000000
1120.0000000000 813.0000000000 699.0000000000
1131.0000000000 811.0000000000 701.0000000000
1127.0000000000 747.0000000000 708.0000000000
1137.0000000000 742.0000000000 702.0000000000
1119.0000000000 791.0000000000 711.0000000000
1121.0000000000 800.0000000000 706.0000000000
1126.0000000000 755.0000000000 711.0000000000
1185.0000000000 789.0000000000 717.0000000000
1151.0000000000 801.0000000000 722.0000000000
1132.0000000000 742.0000000000 702.0000000000
1131.0000000000 743.0000000000 702.0000000000
1127.0000000000 744.0000000000 702.0000000000
1163.0000000000 739.0000000000 697.0000000000
1125.0000000000 740.0000000000 702.0000000000
1116.0000000000 757.0000000000 698.0000000000
1126.0000000000 739.0000000000 702.0000000000
1116.0000000000 735.0000000000 706.0000000000
1126.0000000000 736.0000000000 702.0000000000
1117.0000000000 774.0000000000 711.0000000000
1164.0000000000 756.0000000000 722.0000000000
1136.0000000000 746.0000000000 715.0000000000
1116.0000000000 750.0000000000 703.0000000000
1119.0000000000 801.0000000000 704.0000000000
1118.0000000000 753.0000000000 703.0000000000
1126.0000000000 808.0000000000 698.0000000000
1113.0000000000 786.0000000000 703.0000000000
1116.0000000000 793.0000000000 703.0000000000
1120.0000000000 800.0000000000 703.0000000000
1131.0000000000 807.0000000000 674.0000000000
1119.0000000000 801.0000000000 703.0000000000
1119.0000000000 804.0000000000 703.0000000000
1119.0000000000 752.0000000000 695.0000000000
1117.0000000000 806.0000000000 703.0000000000
1114.0000000000 807.0000000000 703.0000000000
1113.0000000000 811.0000000000 703.0000000000
1113.0000000000 813.0000000000 703.0000000000
1119.0000000000 817.0000000000 703.0000000000
1123.0000000000 747.0000000000 719.0000000000
1180.0000000000 756.0000000000 705.0000000000
1121.0000000000 816.0000000000 703.0000000000
1116.0000000000 808.0000000000 702.0000000000
1182.0000000000 768.0000000000 717.0000000000
1129.0000000000 808.0000000000 703.0000000000
1133.0000000000 811.0000000000 703.0000000000
1135.0000000000 813.0000000000 703.0000000000
1148.0000000000 798.0000000000 726.0000000000
1141.0000000000 814.0000000000 703.0000000000
1166.0000000000 738.0000000000 678.0000000000
1142.0000000000 815.0000000000 703.0000000000
1120.0000000000 785.0000000000 711.0000000000
1144.0000000000 819.0000000000 703.0000000000
1145.0000000000 817.0000000000 703.0000000000
1127.0000000000 779.0000000000 723.0000000000
1176.0000000000 752.0000000000 706.0000000000
1131.0000000000 761.0000000000 723.0000000000
1135.0000000000 810.0000000000 672.0000000000
1150.0000000000 815.0000000000 703.0000000000
1152.0000000000 815.0000000000 703.0000000000
1129.0000000000 805.0000000000 676.0000000000
1155.0000000000 818.0000000000 703.0000000000
1131.0000000000 744.0000000000 715.0000000000
1155.0000000000 816.0000000000 703.0000000000
1140.0000000000 748.0000000000 680.0000000000
1154.0000000000 815.0000000000 703.0000000000
1171.0000000000 749.0000000000 717.0000000000
1158.0000000000 813.0000000000 703.0000000000
1161.0000000000 814.0000000000 702.0000000000
1125.0000000000 744.0000000000 704.0000000000
1134.0000000000 741.0000000000 701.0000000000
1161.0000000000 813.0000000000 703.0000000000
1174.0000000000 810.0000000000 703.0000000000
1173.0000000000 746.0000000000 704.0000000000
1175.0000000000 811.0000000000 703.0000000000
1176.0000000000 811.0000000000 703.0000000000
1177.0000000000 812.0000000000 703.0000000000
1122.0000000000 754.0000000000 709.0000000000
1181.0000000000 813.0000000000 703.0000000000
1182.0000000000 811.0000000000 703.0000000000
1183.0000000000 811.0000000000 703.0000000000
1173.0000000000 753.0000000000 717.0000000000
1126.0000000000 751.0000000000 720.0000000000
1178.0000000000 802.0000000000 716.0000000000
1167.0000000000 739.0000000000 678.0000000000
1173.0000000000 804.0000000000 668.0000000000
1156.0000000000 817.0000000000 705.0000000000
1184.0000000000 747.0000000000 699.0000000000
1114.0000000000 805.0000000000 704.0000000000
1172.0000000000 779.0000000000 703.0000000000
1171.0000000000 776.0000000000 703.0000000000
1180.0000000000 753.0000000000 703.0000000000
1183.0000000000 764.0000000000 708.0000000000
1172.0000000000 745.0000000000 703.0000000000
1171.0000000000 743.0000000000 703.0000000000
1170.0000000000 743.0000000000 703.0000000000
1169.0000000000 742.0000000000 703.0000000000
1159.0000000000 740.0000000000 708.0000000000
1183.0000000000 763.0000000000 712.0000000000
1165.0000000000 741.0000000000 703.0000000000
1161.0000000000 741.0000000000 703.0000000000
1159.0000000000 740.0000000000 703.0000000000
1172.0000000000 813.0000000000 712.0000000000
1152.0000000000 739.0000000000 703.0000000000
1140.0000000000 739.0000000000 703.0000000000
1140.0000000000 740.0000000000 703.0000000000
1139.0000000000 741.0000000000 703.0000000000
1123.0000000000 796.0000000000 710.0000000000
1141.0000000000 734.0000000000 666.0000000000
1135.0000000000 741.0000000000 703.0000000000
1118.0000000000 774.0000000000 716.0000000000
1126.0000000000 739.0000000000 703.0000000000
1127.0000000000 738.0000000000 703.0000000000
1163.0000000000 735.0000000000 677.0000000000
1124.0000000000 735.0000000000 703.0000000000
1123.0000000000 758.0000000000 714.0000000000
1121.0000000000 743.0000000000 712.0000000000
1137.0000000000 810.0000000000 673.0000000000
1119.0000000000 750.0000000000 704.0000000000
1120.0000000000 791.0000000000 716.0000000000
1119.0000000000 752.0000000000 704.0000000000
1118.0000000000 753.0000000000 704.0000000000
1123.0000000000 811.0000000000 698.0000000000
